ply
format ascii 1.0
element vertex 326
property float x
property float y
property float z
end_header
0.09106943756341934 -0.15701627731323242 0.6280651092529297
0.1764618158340454 -0.12310519069433212 0.6316796541213989
0.22507479786872864 -0.10381970554590225 0.6340134739875793
0.22009515762329102 -0.10363688319921494 0.6378073692321777
0.2262159138917923 -0.10096409916877747 0.6362593770027161
0.2240825891494751 -0.10050684958696365 0.6380988955497742
0.173895463347435 -0.10333287715911865 0.6608258485794067
0.18897779285907745 -0.10226070880889893 0.6544685363769531
0.2301006019115448 -0.09827212989330292 0.6391683220863342
0.2088560312986374 -0.09897376596927643 0.6486726999282837
0.20618045330047607 -0.0977931022644043 0.6519540548324585
0.1999323070049286 -0.09750797599554062 0.6555157899856567
0.18402431905269623 -0.09781472384929657 0.6631506681442261
0.21673493087291718 -0.0957854762673378 0.6493930220603943
0.153192400932312 -0.0990249291062355 0.6770935654640198
0.20506048202514648 -0.09514805674552917 0.6561934947967529
0.22495178878307343 -0.0925794318318367 0.6496802568435669
0.23047484457492828 -0.09089149534702301 0.6492249369621277
0.21073772013187408 -0.09137455374002457 0.6585553884506226
0.226094588637352 -0.08978485316038132 0.6529807448387146
0.21155063807964325 -0.089247927069664 0.6610957384109497
0.22695933282375336 -0.0876702070236206 0.6554782390594482
0.22107480466365814 -0.08661513030529022 0.6599248051643372
0.21365033090114594 -0.08562640100717545 0.6650594472885132
0.18941283226013184 -0.08625048398971558 0.676474392414093
0.2197551280260086 -0.08458500355482101 0.6634117960929871
0.16008293628692627 -0.08184751868247986 0.6964065432548523
0.08150266110897064 -0.07307134568691254 0.7494497895240784
-0.10824684798717499 -0.06585308909416199 0.8524998426437378
0.19155529141426086 -0.05310909450054169 0.7212039828300476
-0.11204420775175095 -0.060344211757183075 0.8636214733123779
0.11435044556856155 -0.05229886248707771 0.7613131999969482
-0.25060349702835083 -0.0431661531329155 0.9592477679252625
-0.11829584091901779 -0.03949711471796036 0.8978146910667419
0.18979358673095703 -0.022047534584999084 0.7644542455673218
0.13110992312431335 -0.01619003899395466 0.8035552501678467
-0.21728380024433136 -0.004022430162876844 0.9965023994445801
-0.3340188264846802 0.005344300996512175 1.0688602924346924
-0.1368098109960556 0.007282702252268791 0.9688177108764648
0.12212014943361282 0.0830487385392189 0.9495053887367249
0.12067987024784088 0.08696357905864716 0.951459527015686
0.12492057681083679 0.0922151505947113 0.9566043019294739
-0.11125694215297699 0.12116126716136932 1.113703966140747
0.12807387113571167 0.1086438000202179 0.9768978357315063
-0.44322869181632996 0.18553759157657623 1.3743525743484497
-0.24433836340904236 0.17655417323112488 1.2611011266708374
-0.11432568728923798 0.16532711684703827 1.1791119575500488
-0.4159867763519287 0.19410814344882965 1.371708869934082
-0.4219687283039093 0.19598911702632904 1.3766926527023315
-0.3833220303058624 0.19693107903003693 1.360532522201538
-0.41466715931892395 0.20178967714309692 1.3810381889343262
-0.4248703122138977 0.2098124921321869 1.3987499475479126
-0.047425296157598495 0.18769259750843048 1.174099087715149
-0.10909388959407806 0.26480668783187866 1.314048171043396
0.14065802097320557 0.23110812902450562 1.1420798301696777
-0.11780276894569397 0.2697814106941223 1.3245396614074707
0.1465952843427658 0.23268282413482666 1.1426035165786743
-0.050756316632032394 0.2627008855342865 1.2806810140609741
0.15434961020946503 0.23724105954170227 1.1433303356170654
0.1791394054889679 0.23556126654148102 1.1284370422363281
0.13868220150470734 0.24351951479911804 1.1602500677108765
0.20449146628379822 0.2415654957294464 1.1241981983184814
0.21434427797794342 0.2481881082057953 1.1281278133392334
0.23492737114429474 0.24891114234924316 1.1187018156051636
-0.32165172696113586 0.3565296232700348 1.5501288175582886
-0.3295463025569916 0.36074593663215637 1.559982419013977
0.29091835021972656 0.2618264853954315 1.1082602739334106
-0.35699743032455444 0.3925853967666626 1.6173593997955322
-0.01050478033721447 0.3624149262905121 1.4006373882293701
0.09094161540269852 -0.15726758539676666 0.6280530691146851
0.17480531334877014 -0.1232299879193306 0.6320042014122009
0.21981927752494812 -0.1042313426733017 0.6378278136253357
0.18596069514751434 -0.10312959551811218 0.6547911763191223
0.1888798624277115 -0.10213258117437363 0.6546961069107056
0.2176145315170288 -0.09947171062231064 0.643829882144928
0.20466302335262299 -0.09941856563091278 0.6502758860588074
0.20574863255023956 -0.09782025218009949 0.6521351337432861
0.19998331367969513 -0.09736891835927963 0.6556830406188965
0.21670207381248474 -0.0955178439617157 0.6497812271118164
0.20491690933704376 -0.09447202831506729 0.655974268913269
0.21650393307209015 -0.09390530735254288 0.6521202325820923
0.22452667355537415 -0.09260504692792892 0.6498600840568542
0.2054343968629837 -0.09284519404172897 0.659008800983429
0.2107628583908081 -0.09247609972953796 0.6557834148406982
0.2200765758752823 -0.09123530238866806 0.6540165543556213
0.2255530208349228 -0.09009063243865967 0.6528306603431702
0.21155063807964325 -0.089247927069664 0.6610957384109497
0.22658880054950714 -0.08755311369895935 0.655828595161438
0.20461012423038483 -0.08711783587932587 0.667569637298584
0.2128644436597824 -0.08581098169088364 0.6652014255523682
0.216365247964859 -0.08561690896749496 0.6636969447135925
0.22286038100719452 -0.08518348634243011 0.6608421206474304
0.21055594086647034 -0.08508994430303574 0.6673721075057983
0.21931958198547363 -0.08460890501737595 0.6635993123054504
0.0814029723405838 -0.07304687798023224 0.7494692206382751
0.19133524596691132 -0.05185659974813461 0.7214971780776978
-0.10651884973049164 -0.05217725411057472 0.8718398809432983
-0.11930475383996964 -0.0390000194311142 0.8980777859687805
0.128977969288826 -0.01917913928627968 0.8003734946250916
-0.14183183014392853 -0.00852665863931179 0.9488965272903442
-0.14240723848342896 -0.0055819726549088955 0.9546127915382385
-0.21768485009670258 -0.004483201075345278 0.9962694644927979
-0.14280793070793152 0.010408132337033749 0.9769902229309082
0.1833610087633133 0.06542251259088516 0.8901018500328064
-0.1124010756611824 0.1185564175248146 1.1115854978561401
0.12773555517196655 0.10833701491355896 0.9763995409011841
-0.44236889481544495 0.18546521663665771 1.3738163709640503
-0.249492809176445 0.17622405290603638 1.2632547616958618
-0.42223554849624634 0.19392581284046173 1.375360131263733
-0.4145891070365906 0.1932465136051178 1.3705425262451172
-0.3758765757083893 0.19232463836669922 1.3496465682983398
-0.4134799540042877 0.20087261497974396 1.3805674314498901
-0.3857105076313019 0.19830703735351562 1.3629347085952759
-0.4253044128417969 0.2098541557788849 1.399027705192566
-0.04852810502052307 0.18864847719669342 1.1748747825622559
0.11454107612371445 0.21604034304618835 1.134069800376892
0.13132618367671967 0.22076384723186493 1.1321220397949219
-0.11115748435258865 0.25620073080062866 1.301177978515625
-0.10997704416513443 0.2648046612739563 1.3142448663711548
-0.051472365856170654 0.2605842649936676 1.2779697179794312
0.1651589423418045 0.23246686160564423 1.131225347518921
0.15316951274871826 0.23661258816719055 1.1430559158325195
0.1624429076910019 0.23521575331687927 1.1341701745986938
-0.1822664886713028 0.30073976516723633 1.4020501375198364
0.2734436094760895 0.2465924322605133 1.0959662199020386
-0.3288838565349579 0.3600577414035797 1.5586912631988525
-0.3356725871562958 0.3646910786628723 1.5685635805130005
0.2896178364753723 0.2608221769332886 1.107525110244751
-0.35903680324554443 0.3938869535923004 1.6209337711334229
0.17492425441741943 -0.123609758913517 0.6319516897201538
0.170377716422081 -0.12329795956611633 0.6362124085426331
0.17355060577392578 -0.10427770018577576 0.6609644889831543
0.1859038770198822 -0.10329446941614151 0.6545910835266113
0.2181561142206192 -0.09918917715549469 0.6437484622001648
0.1992245763540268 -0.09757936745882034 0.6557753086090088
0.20599476993083954 -0.0970933809876442 0.6521502733230591
0.21618904173374176 -0.095549575984478 0.6499971151351929
0.1840454488992691 -0.0965440645813942 0.664903998374939
0.20519252121448517 -0.09524919092655182 0.6559861898422241
0.21594883501529694 -0.09361264109611511 0.6528078317642212
0.22024111449718475 -0.09040234982967377 0.6550895571708679
0.2116813063621521 -0.08890613913536072 0.6615040898323059
0.20433327555656433 -0.08727561682462692 0.6676199436187744
0.21246859431266785 -0.08684653788805008 0.6639643311500549
0.21561495959758759 -0.08667005598545074 0.6626150608062744
0.21935179829597473 -0.0863063856959343 0.6597491502761841
0.2229069322347641 -0.08626101911067963 0.6594879627227783
0.2249777615070343 -0.08614487200975418 0.6585999131202698
0.18826979398727417 -0.08717445284128189 0.6757709383964539
0.21009238064289093 -0.08494517207145691 0.6678079962730408
0.18680225312709808 -0.0851818174123764 0.6792808175086975
0.15878506004810333 -0.08349782973527908 0.6958152651786804
0.15901079773902893 -0.07888758927583694 0.7002683281898499
-0.10253915935754776 -0.05680224671959877 0.8630369305610657
-0.10660915076732635 -0.05261689051985741 0.8708983659744263
0.18954922258853912 -0.022929325699806213 0.7643112540245056
-0.21926340460777283 -0.004783924203366041 0.996651828289032
-0.3349725902080536 0.004486261401325464 1.0681524276733398
-0.3477114737033844 0.03367631137371063 1.1153931617736816
0.11948288977146149 0.08618750423192978 0.9512967467308044
0.12438619881868362 0.09202645719051361 0.9564783573150635
-0.11256272345781326 0.1162852868437767 1.1088333129882812
0.1275433897972107 0.10760954022407532 0.9751953482627869
-0.1142207682132721 0.13360880315303802 1.134207844734192
-0.4439704716205597 0.18661624193191528 1.3762258291244507
-0.4242836534976959 0.19410774111747742 1.3766504526138306
-0.4150972068309784 0.19329166412353516 1.370862603187561
-0.41217195987701416 0.19919812679290771 1.377580165863037
-0.42322206497192383 0.20965425670146942 1.3976950645446777
-0.04882979393005371 0.18899740278720856 1.1747523546218872
0.11372396349906921 0.21476159989833832 1.1327086687088013
-0.11241243034601212 0.256571888923645 1.302496075630188
0.1276034414768219 0.2275245487689972 1.1453393697738647
-0.051472365856170654 0.2605842649936676 1.2779697179794312
0.1454724222421646 0.23293855786323547 1.1418555974960327
0.15159238874912262 0.23492254316806793 1.1415088176727295
0.16463056206703186 0.23301906883716583 1.132259726524353
0.1780192106962204 0.233903706073761 1.1267036199569702
0.20390473306179047 0.24144837260246277 1.124061107635498
-0.019383465871214867 0.2785833477973938 1.2866766452789307
0.25164222717285156 0.24866986274719238 1.1110466718673706
-0.3288838565349579 0.3600577414035797 1.5586912631988525
-0.33704066276550293 0.3656247556209564 1.570552945137024
-0.3585369288921356 0.3908666968345642 1.6164875030517578
0.17352934181690216 -0.12300105392932892 0.6335036158561707
0.17530739307403564 -0.1227981299161911 0.6319383382797241
0.19226886332035065 -0.10383763909339905 0.6506118178367615
0.17364764213562012 -0.10390345752239227 0.6599559783935547
0.18512827157974243 -0.1031518504023552 0.6551820635795593
0.21005550026893616 -0.10151992738246918 0.6448166966438293
0.1532222330570221 -0.09924248605966568 0.6767764091491699
0.1837536096572876 -0.09616310894489288 0.6655808091163635
0.21577312052249908 -0.09303449094295502 0.6536993980407715
0.21115094423294067 -0.09105421602725983 0.6590555906295776
0.2156216949224472 -0.08567841351032257 0.662213146686554
0.2090330868959427 -0.08500318974256516 0.6682642102241516
0.18621708452701569 -0.085005022585392 0.6798227429389954
0.15888912975788116 -0.08392144739627838 0.6951744556427002
0.1589776575565338 -0.0784044861793518 0.7003540396690369
0.1609530746936798 -0.056734610348939896 0.7318709492683411
0.11322378367185593 -0.05242515355348587 0.7613385319709778
0.18954922258853912 -0.022929325699806213 0.7643112540245056
0.12741458415985107 -0.02052183635532856 0.7991378903388977
-0.2203167825937271 -0.004072518087923527 0.9981732368469238
-0.3351731300354004 0.0048737251199781895 1.0687919855117798
-0.351845920085907 0.03155653923749924 1.1142827272415161
-0.3473834693431854 0.033997759222984314 1.115410566329956
-0.09152750670909882 0.08173343539237976 1.0499167442321777
-0.1174539178609848 0.10954677313566208 1.10160493850708
-0.07816946506500244 0.10954665392637253 1.0795378684997559
-0.12220024317502975 0.11625214666128159 1.1145920753479004
-0.44403472542762756 0.1878439337015152 1.3779627084732056
-0.11679304391145706 0.16664528846740723 1.181807041168213
-0.4277810752391815 0.19751405715942383 1.3831515312194824
-0.4161186218261719 0.19562728703022003 1.3722119331359863
-0.3769989609718323 0.19293098151683807 1.3510570526123047
-0.4112657904624939 0.19973570108413696 1.3778672218322754
-0.38586679100990295 0.1974000334739685 1.3617547750473022
-0.42455166578292847 0.21233199536800385 1.4020861387252808
-0.04932311549782753 0.19139067828655243 1.1805516481399536
0.0189356692135334 0.19645217061042786 1.1505444049835205
0.11463190615177155 0.2157510370016098 1.133622169494629
0.12193368375301361 0.21812070906162262 1.1332119703292847
0.13149423897266388 0.22018267214298248 1.131230115890503
-0.11343902349472046 0.2554095983505249 1.2991037368774414
0.13756844401359558 0.22949370741844177 1.141078233718872
0.1289258748292923 0.2341676652431488 1.1519461870193481
0.14025799930095673 0.24654504656791687 1.1633870601654053
0.1874123364686966 0.23937088251113892 1.1295337677001953
0.19466149806976318 0.24172350764274597 1.1291266679763794
-0.020453212782740593 0.28191182017326355 1.2914167642593384
0.25169432163238525 0.25000450015068054 1.1117236614227295
-0.33117300271987915 0.36127975583076477 1.5615476369857788
0.17655929923057556 -0.12255098670721054 0.6325930953025818
0.17107431590557098 -0.12167497724294662 0.6365885138511658
0.1916840821504593 -0.10410639643669128 0.650534987449646
0.20372526347637177 -0.09916362911462784 0.6512954235076904
0.1536860316991806 -0.09945657104253769 0.6762441992759705
0.15452896058559418 -0.0964771956205368 0.6799532175064087
0.2058885544538498 -0.0933922827243805 0.658211350440979
0.20865817368030548 -0.08600341528654099 0.6670656204223633
-0.10805188119411469 -0.06747271120548248 0.8522181510925293
0.11359323561191559 -0.05281493440270424 0.7611806392669678
-0.2517401874065399 -0.0440782755613327 0.9585576057434082
0.1894519329071045 -0.023247545585036278 0.7639187574386597
-0.21976959705352783 -0.0070595527067780495 0.9937491416931152
-0.33303698897361755 0.005040004383772612 1.0675324201583862
-0.3499086797237396 0.031186562031507492 1.1124045848846436
-0.3471794128417969 0.03248799964785576 1.1132112741470337
-0.09136046469211578 0.08172329515218735 1.0468597412109375
-0.07715225219726562 0.1015799269080162 1.0738846063613892
0.12676994502544403 0.09249559789896011 0.9539853930473328
-0.12185771018266678 0.1130419671535492 1.1108677387237549
-0.11266684532165527 0.11249009519815445 1.1054444313049316
-0.11452982574701309 0.13299565017223358 1.1311067342758179
-0.42580166459083557 0.19362640380859375 1.37675142288208
-0.41697439551353455 0.19284473359584808 1.371193289756775
-0.3738860487937927 0.18902909755706787 1.3440629243850708
-0.40609869360923767 0.19629576802253723 1.3704735040664673
-0.38445913791656494 0.1943354308605194 1.3567869663238525
-0.42640697956085205 0.21174530684947968 1.4022117853164673
0.019469061866402626 0.194260835647583 1.149233102798462
0.11637269705533981 0.21485857665538788 1.1315011978149414
0.1305454671382904 0.21697455644607544 1.127257227897644
0.1405281275510788 0.22771231830120087 1.1371055841445923
0.1302075982093811 0.2332916259765625 1.1500805616378784
0.13908936083316803 0.23616856336593628 1.1495740413665771
0.15538974106311798 0.2337946742773056 1.1380189657211304
0.16607582569122314 0.23223839700222015 1.1304435729980469
0.12583909928798676 0.2423221915960312 1.1648309230804443
0.14039120078086853 0.2443942427635193 1.1603337526321411
0.2039310485124588 0.23868170380592346 1.1207702159881592
-0.21205270290374756 0.30800867080688477 1.427234172821045
-0.020538339391350746 0.278433620929718 1.2893081903457642
0.17314039170742035 -0.12285399436950684 0.6334115266799927
0.1913602203130722 -0.10406243801116943 0.6506133675575256
0.18526451289653778 -0.08532486110925674 0.6791141629219055
0.15838472545146942 -0.08512860536575317 0.6937541961669922
-0.10824572294950485 -0.06777812540531158 0.8529294729232788
0.11426731199026108 -0.05085603892803192 0.7610241770744324
-0.25269919633865356 -0.04316335543990135 0.960313618183136
0.18828056752681732 -0.02478165179491043 0.7623826265335083
0.12763886153697968 -0.020985228940844536 0.7983808517456055
-0.2213318943977356 -0.007575267925858498 0.99382483959198
-0.11494756489992142 0.06312099099159241 1.0380631685256958
-0.0907730758190155 0.0832706168293953 1.0507334470748901
0.1284237802028656 0.09352526813745499 0.9539564847946167
-0.11398883163928986 0.11244919896125793 1.1047707796096802
0.12883301079273224 0.10453830659389496 0.9709754586219788
-0.11711746454238892 0.13318908214569092 1.1351362466812134
0.11023680120706558 0.12348915636539459 1.0046806335449219
-0.41701772809028625 0.19461838901042938 1.3736774921417236
-0.3755457401275635 0.19091220200061798 1.3475182056427002
-0.11855357885360718 0.16849756240844727 1.1848669052124023
-0.4284106194972992 0.21749301254749298 1.4112063646316528
-0.05060397833585739 0.19307555258274078 1.182510495185852
0.016862280666828156 0.1956108659505844 1.1508179903030396
0.1157146617770195 0.20297478139400482 1.11467707157135
0.11449256539344788 0.21750374138355255 1.1361260414123535
0.13156476616859436 0.22003938257694244 1.130995512008667
0.13957074284553528 0.22866469621658325 1.1389127969741821
0.1535748392343521 -0.0994052141904831 0.6763718724250793
0.18431831896305084 -0.08699435740709305 0.6780231595039368
0.15728184580802917 -0.08629177510738373 0.6926982402801514
-0.10083718597888947 -0.0671331137418747 0.8454540371894836
0.10390850156545639 -0.06030231714248657 0.7558231353759766
0.1877102255821228 -0.023881234228610992 0.7639216780662537
0.127441868185997 -0.02194461226463318 0.7971487641334534
0.18341536819934845 -0.02119256742298603 0.7698304653167725
-0.22428593039512634 -0.005127438344061375 0.9987198710441589
-0.11724945157766342 0.0646134540438652 1.0413014888763428
0.12762203812599182 0.09126454591751099 0.9542207717895508
-0.11620553582906723 0.10885967314243317 1.098437786102295
0.11062204837799072 0.11768993735313416 0.9982393980026245
-0.12320493161678314 0.17028431594371796 1.1886242628097534
-0.04986841231584549 0.1918543577194214 1.1797764301300049
0.016446877270936966 0.191493958234787 1.1496986150741577
0.11575721949338913 0.20223131775856018 1.1142830848693848
0.15345428884029388 -0.09983167797327042 0.6758409142494202
0.15997382998466492 -0.08658662438392639 0.690924882888794
0.13416284322738647 -0.02128293365240097 0.794661819934845
-0.22382794320583344 -0.008807772770524025 0.9933786392211914
-0.11822196841239929 0.06549892574548721 1.0430235862731934
-0.11407803744077682 0.10289017856121063 1.0928324460983276
0.11034861207008362 0.11627639085054398 0.9976963400840759
-0.12069101631641388 0.16617725789546967 1.1869200468063354
